20.894614 32.980000 269.693076
20.917692 34.922308 269.706153
21.022665 37.020000 269.726001
21.115001 39.034167 269.748334
21.005834 40.925000 269.755000
20.939999 43.127778 269.976667
20.939999 45.005556 271.062223
21.096663 46.970000 271.202224
21.055453 49.121818 271.237273
20.737142 51.046429 271.973571
20.999230 52.930769 271.226922
20.859475 55.037368 272.370000
21.053595 57.023600 276.187601
20.986664 58.995000 278.993334
21.298823 60.951176 277.830000
21.351766 62.968235 280.548823
21.111997 64.787000 279.997002
20.862305 66.951538 273.809231
21.044288 69.110000 272.180714
21.174164 71.054167 271.381667
21.132144 72.840715 270.872143
20.905997 75.079999 270.091999
21.026669 77.111112 270.227777
21.055553 79.016667 270.346666
21.069092 81.082728 270.508181
20.852143 82.965715 270.632858
20.952661 84.966667 270.794667
21.044668 87.029334 270.952000
21.086426 89.016428 271.084286
21.207855 90.905000 271.235000
20.988500 92.950000 271.359500
20.799997 94.927143 271.476429
20.806875 96.937500 271.615625
20.931248 99.036875 271.837501
21.032666 101.066667 272.062000
21.176878 103.097500 272.248750
21.039999 104.970000 273.061999
20.921116 107.111111 272.736667
20.983332 109.048334 273.100834
21.008233 110.959411 276.755294
21.120708 113.273572 277.392143
21.145834 115.015833 275.227500
20.945996 117.134001 273.637333
21.030001 118.982000 273.638667
21.123334 121.000000 273.638889
21.181763 123.104707 273.651177
20.997727 125.023636 273.655001
20.876658 126.146666 273.663335
22.890768 1.029999 278.246923
23.143333 3.122667 275.010001
22.925832 4.856666 270.729167
22.874444 7.004445 269.593333
23.008747 8.931250 269.599999
22.853077 11.096154 269.610000
22.830831 13.039167 269.612501
22.975002 15.008572 269.617142
22.960769 17.023077 269.626924
23.104612 18.997692 269.642308
23.071663 20.897500 269.656668
22.945557 23.047778 269.668890
22.964440 25.052222 269.675556
23.132223 27.066667 269.685555
22.867498 29.099167 269.685833
22.882141 31.010000 269.689286
22.931429 33.053571 269.705000
23.125383 35.021538 269.720770
23.110711 36.972143 269.727858
23.191538 38.935385 269.743078
22.771539 41.153077 269.750769
22.798571 43.094286 270.323572
22.767857 44.980714 271.449285
22.969999 47.032143 271.225000
22.963074 48.956923 271.257692
23.147858 50.894286 271.273572
23.077691 52.842308 271.269999
22.910001 55.016000 271.255000
23.032223 57.021111 271.242223
23.065452 58.966364 271.640001
23.073639 61.061818 271.872728
23.216469 62.736471 275.700000
23.031425 64.928571 278.107858
23.015381 66.867692 277.879230
23.130716 68.888571 276.827143
23.183999 70.996000 275.948002
23.329332 72.998667 276.268000
22.843331 75.075333 271.042000
22.870772 76.993846 270.316922
22.968665 78.933334 270.457334
23.064665 81.010000 270.602000
23.069168 82.910000 270.730001
22.828998 84.969000 270.854001
22.918003 87.005999 271.044000
23.012000 89.035000 271.224000
23.102994 91.060001 271.387000
23.216668 92.957777 271.547779
22.864665 94.865333 271.675333
22.997500 96.915625 271.908750
23.046002 98.956667 272.058666
23.178234 100.969999 272.692941
23.153329 103.031110 273.751667
23.147782 105.032222 275.037223
22.816918 106.756923 274.943077
22.788239 108.987646 273.780000
22.934666 111.090668 273.786666
22.988121 113.129377 273.950000
23.121334 115.026000 273.646668
22.797000 116.975000 273.647001
22.909996 118.980909 273.648183
22.966364 121.060000 273.645455
23.076996 123.034999 273.664001
23.186363 124.990908 273.665456
23.019989 126.100002 273.669998
25.053634 1.089091 276.792727
25.104542 2.775454 274.610909
24.903640 5.026364 269.578181
24.796922 6.960001 269.591536
24.893570 9.027143 269.605715
24.985835 11.022500 269.613334
25.076154 12.938461 269.614616
25.170001 15.003572 269.612857
25.193634 16.917273 269.634544
25.037774 18.893334 269.650001
24.864546 21.079091 269.659092
24.877691 23.016923 269.663847
24.914614 24.997692 269.680769
24.950001 26.960769 269.689999
25.156917 28.932308 269.697692
25.142145 30.969286 269.706428
24.914997 33.003750 269.706250
25.009998 35.035000 269.724002
25.105000 37.061250 269.733751
25.041999 39.071000 269.752999
24.936923 40.984615 269.810001
24.950665 42.945333 270.890666
24.964999 45.019167 271.355832
25.187856 46.953571 271.256428
25.106922 48.960000 271.285385
24.894443 51.095556 271.288889
24.893635 53.186364 271.273636
24.768461 55.033846 271.280000
24.875713 56.990714 271.274999
24.953843 58.930000 271.273845
25.053331 60.946667 271.273999
24.920000 62.936429 272.489285
24.779997 65.003750 274.655625
24.852725 66.873636 277.302727
24.951111 69.014444 277.709998
24.998999 70.916000 278.230000
25.096997 73.000000 278.204000
24.883637 75.110909 276.869091
24.965716 76.979285 276.077858
24.966151 78.973846 274.193846
25.096662 81.123333 271.159167
25.117647 83.054705 270.883529
24.694374 84.995625 270.986874
24.797331 87.036000 271.151334
24.887333 88.998000 271.344667
24.968125 91.016250 271.526876
25.069332 93.014667 271.734000
25.090003 94.954667 271.938668
24.850998 97.059000 272.013999
24.929225 98.929230 273.563078
24.991666 101.017499 274.840833
25.081000 103.040999 275.057999
25.198181 105.060001 274.761818
24.940666 107.197999 274.424001
24.954998 109.124285 273.760714
25.096875 111.009374 273.631876
25.138230 113.019412 273.646471
25.291765 115.058823 273.730001
24.988571 117.028571 273.648095
24.866248 118.893125 273.656252
24.888335 120.982778 273.657779
24.981995 122.998000 273.666001
25.110589 124.932352 273.671177
24.690003 126.119999 273.680000
27.024997 1.298000 272.698999
26.793845 3.097693 269.576923
26.883331 5.029167 269.580833
26.918462 6.963846 269.599998
27.126426 9.045714 269.607857
27.167499 11.052500 269.622500
27.053639 12.880000 269.619091
27.025550 15.020000 269.623333
26.961114 17.054444 269.642223
26.800000 18.911538 269.646924
26.894285 20.969286 269.660002
26.989230 23.012308 269.787692
27.021534 24.994615 269.744615
27.230715 27.035000 269.692143
27.120999 28.930000 269.706999
26.953332 30.966667 269.721112
26.744285 32.995000 269.725001
26.836922 35.029231 269.737693
26.935717 37.048571 269.749286
27.023331 38.999167 269.755833
27.113330 40.971333 270.168668
27.237859 43.010714 271.275001
26.874444 44.968889 271.242222
27.035553 46.981111 271.270000
26.954001 49.029000 271.294000
26.814000 51.040667 271.309334
26.910001 53.035000 271.290000
27.002666 55.018000 271.286667
27.095833 56.997500 271.280000
27.186664 58.970000 271.285333
27.276665 60.938334 271.290834
26.859164 63.008333 271.305834
26.827144 65.025000 271.305000
26.613158 66.990526 272.968947
26.828997 68.861000 273.969999
27.126666 70.967143 276.361429
27.142664 73.072667 278.089333
27.056429 74.902857 279.200715
27.092302 76.908461 278.794616
26.926251 78.986250 278.293749
27.075555 80.986666 277.017779
27.131107 82.965556 275.197777
26.892666 85.092000 271.458000
26.986664 87.118000 271.378667
27.137142 89.072143 271.568571
27.161332 91.008667 271.728000
27.197142 92.941428 271.892858
26.944168 95.061666 272.123335
26.670433 97.074348 274.314348
26.791251 98.916875 277.844375
26.791817 101.062727 275.934546
26.924284 103.033572 274.472144
27.091665 104.957500 273.429168
26.753000 106.863001 273.141000
26.843331 108.907500 273.496665
26.937000 110.983001 273.650001
27.009092 112.989092 273.655456
27.122998 114.974000 273.652001
27.234547 116.950000 273.650910
26.896248 119.016251 273.671875
26.962939 120.995883 273.667060
27.028825 123.004706 273.675295
27.102496 124.945000 273.676249
26.907501 126.080000 273.682501
28.878327 1.544999 270.126667
28.901539 3.030000 269.571538
29.047498 4.950834 269.577500
29.192141 6.942143 269.604999
29.110835 8.955833 269.609999
29.006667 11.073333 269.622223
28.848001 13.115000 269.629000
28.793077 14.944615 269.631538
28.892140 17.006428 269.643572
28.986666 19.002500 269.660001
29.072306 20.914615 269.663077
29.174997 22.974286 269.672856
29.131817 24.971818 269.679090
28.992497 27.026250 269.787500
28.863634 29.061818 269.700908
28.813568 31.011429 269.722144
28.910002 32.990000 269.733334
29.003333 35.036000 269.741999
29.099162 37.072500 269.752500
29.239230 38.956923 269.785385
29.211428 40.883571 270.651429
29.098178 42.951818 271.248181
28.747503 45.073333 271.252500
28.783567 47.009286 271.280714
28.990770 48.998462 271.303077
28.970714 51.005000 271.311428
29.178460 52.993846 271.293847
29.095382 54.935385 271.293077
28.929997 56.967500 271.296252
29.019998 58.934000 271.288001
29.082221 61.007778 271.311112
28.814998 62.945000 271.331429
28.916667 65.047334 271.332000
29.017689 67.072308 271.333076
29.094284 69.005000 271.344284
29.087058 71.074705 272.389999
29.105000 72.889286 272.612142
29.118888 74.946667 275.866111
28.773846 77.114615 279.052308
28.863571 78.993571 279.404286
28.800000 80.923846 279.061539
28.955384 82.917692 277.819231
29.201249 84.951251 274.266250
28.865998 86.902999 271.470999
28.958002 88.940000 271.648001
29.049997 90.962000 271.831999
29.139166 93.081667 272.442500
28.765625 94.939375 273.541876
28.807219 96.970000 274.863334
28.977996 98.961000 277.263500
28.977780 101.267778 275.007777
29.319228 103.061539 273.118462
29.204375 104.993124 273.130000
28.799998 106.890625 273.140625
28.733889 109.043333 273.353889
29.001335 111.008000 273.774002
28.995998 112.960000 273.664001
29.043529 114.980589 273.661177
29.057690 116.918462 273.654617
28.868994 118.925001 273.674000
28.962499 120.952500 273.672500
29.056000 122.959001 273.682001
29.149997 124.941667 273.690833
29.205002 126.190002 273.694999
31.038325 1.423333 269.575000
31.166426 2.971428 269.584998
31.207502 4.979167 269.591664
30.896664 6.916667 269.607778
30.964997 9.068000 269.613001
30.770831 10.933333 269.617500
30.811428 12.947857 269.625714
31.017693 15.014615 269.635384
30.997690 17.024615 269.649232
31.202304 19.012307 269.677693
31.240002 21.006923 269.672309
30.941108 23.038889 269.686667
30.863001 25.071000 269.692000
30.809281 26.955714 269.699286
30.905386 29.000000 269.704615
30.944615 30.977692 269.721539
31.147854 33.015000 269.725001
31.137691 35.052308 269.733847
31.211536 37.183846 270.823846
31.078463 38.772308 273.397692
31.064999 40.986250 271.927501
30.797692 43.002308 271.245385
30.883569 45.012143 271.267143
30.982309 46.984615 271.305385
31.073332 49.054667 271.306667
31.166664 51.035833 271.302501
31.205000 52.957143 271.302858
30.893334 55.077778 271.293334
30.753998 56.971333 271.306666
30.909229 59.019231 271.308461
30.886427 60.962143 271.336429
31.084998 63.002857 271.328571
31.076156 64.946923 271.330770
31.104614 66.881539 271.335384
30.972219 69.063333 271.345553
31.002225 70.999999 271.348888
31.037000 72.999000 271.354999
30.781248 74.998750 271.730624
30.894286 76.973809 274.208096
31.044758 78.898571 276.616190
31.091335 80.901333 277.810666
31.096149 82.866154 277.976923
31.109232 85.343846 273.326154
30.800709 87.009286 272.198571
30.817332 89.051334 271.808667
30.851250 90.981250 272.746250
30.915294 92.951764 274.162941
31.112665 95.023333 274.575334
31.035382 97.035384 273.980770
30.896664 99.086667 273.367776
30.963004 101.035000 273.115000
31.053998 103.008000 273.131000
31.146997 104.966001 273.144000
30.835999 107.006666 273.146001
30.938748 109.012500 273.143750
31.064707 111.034118 273.581177
31.089999 112.951429 273.794286
31.157056 114.952941 273.668824
31.126844 117.095790 273.672632
30.790623 119.010626 273.673750
30.786469 121.034118 273.682353
30.927999 122.992001 273.696666
31.022777 124.993332 273.704444
31.899994 126.159999 273.709999
33.263752 1.458750 269.588750
33.191540 3.041539 269.606924
32.987496 4.993750 269.598749
32.726924 6.933846 269.610001
32.768461 8.924615 269.616925
32.972857 10.979286 269.630714
33.015834 12.965000 269.641667
33.056425 14.947857 269.659286
33.262308 17.005385 269.664616
32.932999 18.998000 269.678000
33.029999 21.027500 269.678749
32.810768 22.927692 269.687692
32.804287 24.953571 269.692857
32.998460 26.971538 269.703076
32.993568 29.009286 269.715713
33.187695 31.008462 269.729231
33.280769 32.962308 269.733847
33.149997 34.875000 269.737500
32.843333 37.163333 271.462000
32.809169 39.100000 277.219999
32.806364 41.232727 272.540910
32.985001 43.065000 271.268332
33.082666 45.076000 271.288000
33.176667 47.081667 271.314167
33.029999 48.914000 271.307000
32.944441 50.981111 271.302223
33.000000 53.078000 271.309999
32.802307 54.964615 271.307694
32.885714 56.952857 271.306428
32.938573 59.002143 271.310715
33.128460 60.961538 271.341537
33.173332 63.002000 271.336666
33.273074 65.033077 271.330000
32.903333 66.997500 271.330833
32.776667 69.023333 271.343332
32.816153 71.030769 271.353845
33.008571 72.937857 271.368572
33.056663 74.996001 271.382666
33.102309 76.979231 271.375384
32.975000 78.927857 272.029286
32.950998 81.072000 272.091999
33.038999 82.981000 272.134000
33.112727 85.013636 272.001819
32.883571 87.132857 272.782143
32.994664 88.980666 273.589334
32.944702 91.026471 274.062353
33.030712 93.101428 274.177142
33.219995 94.934616 273.949231
33.160591 97.101765 273.085294
32.717998 99.137334 273.101333
32.814667 101.118000 273.113334
32.904000 103.084667 273.126666
32.999998 105.037999 273.137999
33.089331 106.983333 273.148667
33.055385 108.836154 273.151539
32.897270 110.966364 273.153638
32.931824 112.890000 273.899090
33.078181 115.015454 273.676364
33.148996 116.986999 273.676999
32.889412 119.028823 273.684707
32.884997 121.058125 273.696249
33.064375 123.004376 273.718750
33.119999 125.043889 273.772779
33.569992 126.150001 274.330001
35.271668 1.513333 269.598331
35.154544 2.880000 269.611818
34.693846 4.974616 269.610000
34.897141 7.000714 269.615714
34.938335 8.980000 269.619167
35.033332 11.016667 269.630667
35.129166 13.054167 269.645834
35.162307 14.937692 269.657694
35.179088 16.848182 269.669092
34.717692 19.046923 269.674616
34.869232 21.016923 269.675385
34.903844 22.983077 269.681538
35.005713 25.027857 269.700712
35.096924 27.056154 269.701538
35.250768 29.020769 269.722308
35.024547 30.954545 269.741818
35.024998 33.040000 269.743750
34.943637 35.049091 269.748182
34.766469 37.038235 271.455883
34.744995 38.775000 275.391666
35.112307 41.014615 271.257692
35.080000 43.003571 271.413570
35.123845 45.006154 271.303846
35.327142 46.968571 271.316428
34.695386 49.071538 271.316155
34.845714 51.070714 271.318571
34.839996 53.053077 271.316153
34.975384 54.949231 271.318461
35.076665 56.996667 271.315333
35.172501 58.962500 271.326666
34.980904 60.835455 271.350908
34.984003 63.058000 271.344998
35.105550 65.094444 271.334443
34.801540 67.066154 271.341536
34.874998 68.986429 271.357142
35.027141 70.956429 271.380714
35.072667 73.008666 271.383333
35.155714 75.052143 271.382856
35.311425 77.008572 271.371429
34.953335 78.955333 271.392668
34.774667 80.944667 271.788000
34.816428 82.992857 271.675001
34.963330 84.958667 271.944667
35.051996 86.975999 272.251334
35.160529 88.994211 273.918420
34.765554 90.956666 274.875557
34.961114 93.113334 273.066668
35.020999 95.045000 273.086999
35.116996 97.057000 273.093999
34.823336 99.042000 273.099998
34.913332 101.023333 273.116001
35.005998 102.992000 273.129335
35.140625 105.015625 273.145627
35.193331 107.020666 273.160002
35.044736 109.105263 273.159475
34.816872 111.001252 273.168751
34.782941 113.044117 273.384706
34.960625 114.966876 273.933125
34.952855 116.950714 273.685714
35.107778 119.018889 273.702777
34.998332 120.951668 273.712500
34.913842 123.089231 273.899231
34.943637 124.965455 274.960910
35.004990 126.024998 275.375000
36.972504 1.527501 269.607500
36.834998 3.032000 269.607999
36.739999 4.963571 269.610715
36.939228 7.050001 269.613847
36.980001 8.998333 269.623334
37.072306 10.930769 269.631538
37.113845 12.938461 269.648463
37.262306 14.952308 269.663078
36.748180 17.106364 269.666364
36.773844 18.963077 269.676923
36.869998 21.020714 269.677143
36.964167 23.001667 269.686667
37.052307 24.905385 269.703846
37.147856 26.950714 269.712143
37.246155 28.997692 269.723846
36.912140 31.015714 269.726429
36.766668 32.964167 269.741666
36.801537 34.858462 269.957693
36.948000 37.026667 270.292000
37.024614 39.023077 271.199230
37.124288 41.025000 271.272855
37.213846 43.026923 271.293078
37.119091 44.875455 271.295455
37.059998 47.049000 271.519001
36.729230 49.070769 271.309231
36.932855 51.034286 271.310714
36.912307 52.980769 271.314615
37.065330 55.014667 271.312000
37.166924 57.044616 271.313076
37.247855 58.968571 271.329285
36.818663 60.994667 271.341998
36.830000 63.073572 271.352142
36.825383 65.000000 271.349998
37.015712 66.935000 271.353570
37.066667 68.996000 271.372001
37.110716 71.059286 271.394287
37.107270 72.956364 271.384545
36.946669 75.015555 271.377778
37.096663 76.912223 271.368890
36.893846 79.052308 271.490001
36.914281 80.947857 271.770714
36.990622 82.988125 271.953125
36.987499 85.054375 272.538750
37.128748 87.134375 273.193126
37.189996 89.076923 273.123077
37.083890 90.979444 273.336111
36.755331 92.950000 273.083332
36.851335 94.982001 273.092665
36.948666 96.998000 273.110000
37.044662 99.002667 273.108000
37.076001 100.995333 273.121333
36.939997 102.960000 273.139092
36.928000 105.001999 273.164002
37.018000 106.942001 273.176999
37.135451 108.977273 273.166365
36.870002 111.030713 273.172143
36.869408 113.005882 273.180000
37.031250 114.996875 273.505000
37.012000 116.976000 273.838667
37.254442 119.037222 273.785556
37.009585 121.078750 275.096667
36.976841 122.873159 275.660001
36.866312 124.895263 275.221052
36.856669 126.163333 275.360000
38.679998 1.500000 269.603332
38.802307 2.973077 269.609231
38.844614 4.988461 269.609231
38.886921 6.991538 269.613078
39.085384 9.001538 269.617693
39.073843 11.008461 269.635384
39.219999 13.007692 269.644616
39.142500 14.973334 269.673333
38.730769 17.034616 269.670769
38.824166 18.969167 269.673333
38.968459 20.907692 269.680769
38.963571 22.975714 269.693570
39.108333 24.983333 269.706666
39.252143 26.985000 269.717858
39.109999 28.950909 269.728183
38.817497 31.168333 269.747500
38.791664 33.019167 269.749167
38.883332 35.039333 269.957334
39.007690 37.060769 270.991538
38.997855 39.035000 271.252143
39.134997 40.992500 271.282499
39.227999 43.008000 271.306000
39.066150 45.021538 271.313845
38.701429 46.927143 271.312857
38.901539 48.940769 271.303078
38.889282 50.929286 271.384999
39.042141 53.010000 271.388572
39.128461 54.994615 271.319231
39.232666 57.062000 271.320666
38.965000 59.036250 271.319999
38.822306 61.030000 271.343075
38.749998 62.930000 271.352307
38.898002 64.954667 271.361333
39.046426 67.045715 271.367858
39.033074 68.977692 271.376154
39.182668 70.978000 271.391333
39.098820 73.097059 271.383529
38.848751 74.930000 271.378750
38.835999 77.038000 271.374667
38.931425 79.028572 271.642857
39.013332 81.000000 271.950665
39.097335 82.983333 272.499334
39.144373 85.035000 273.081875
39.210002 86.980000 273.036667
39.019998 89.069001 273.048001
39.116996 91.108000 273.064000
38.820669 93.100667 273.089332
38.912665 95.098000 273.107333
39.008000 97.086667 273.114667
39.098000 99.066667 273.117334
39.096664 101.036667 273.122000
39.068001 103.043500 273.135998
38.823746 104.916249 273.158126
38.838664 106.892001 273.173334
38.939999 109.013333 273.175000
39.040664 111.116001 273.201998
39.130668 113.019334 273.198000
39.025381 114.899230 273.213077
38.928181 116.910000 273.883638
38.979232 118.996923 274.436154
39.099088 121.041819 275.101819
39.158336 122.968333 275.765000
38.851331 125.053333 275.505334
38.899994 126.130001 275.490000
40.750006 1.566667 269.598331
40.814164 2.949999 269.605833
40.962141 4.941429 269.605713
40.953846 7.000000 269.620001
41.102307 8.980000 269.619232
41.247690 10.962308 269.636922
41.156361 12.843636 269.649091
40.820909 15.069091 269.663638
40.836921 16.987692 269.666924
40.819231 18.968462 269.680001
41.019285 20.997143 269.691429
41.059998 22.965000 269.699165
41.148571 24.922857 269.706428
41.300716 27.035000 269.722858
40.788181 29.158182 269.737273
40.757500 30.991667 269.754166
40.855715 32.984286 269.768572
40.945000 35.071667 270.109999
41.015336 37.020667 271.140667
41.110001 39.050000 271.275833
41.194616 40.933846 271.297693
41.099088 42.839091 271.329090
40.960001 45.052000 271.329000
40.729281 46.995714 271.324286
40.920772 48.983846 271.313077
40.962141 50.986429 271.315715
41.016427 53.040000 271.317857
41.204618 55.026923 271.323077
41.200712 56.997143 271.328571
40.948000 58.904000 271.325333
40.788666 60.983333 271.332666
40.876923 63.029231 271.359230
40.981426 64.990714 271.369285
41.063078 66.947692 271.377693
41.165998 68.974667 271.391333
41.190907 70.862727 271.402730
40.986002 72.862000 271.389000
40.841537 75.126923 271.374615
40.865385 77.000000 271.484616
40.900627 78.931250 272.108750
40.921332 80.968667 272.746666
41.115712 82.932858 273.011428
41.156665 84.934667 273.046667
41.105882 87.067647 273.059412
40.952776 88.953334 273.066667
40.809335 90.963333 273.081999
40.906663 92.998000 273.089332
41.001335 95.020000 273.120001
41.097998 97.032667 273.125334
41.194666 99.034666 273.127999
40.914997 101.033000 273.126001
41.007001 102.997001 273.134000
40.833997 105.120667 273.150668
40.836666 107.089999 273.173334
40.927334 109.022667 273.188000
41.068569 110.907856 273.199999
41.154119 112.971177 273.219412
41.021429 115.008571 273.973333
40.915829 116.942500 274.672917
41.081429 118.955000 276.303572
40.685000 121.153334 276.911111
41.003528 122.904117 278.198824
41.048182 125.099091 276.259090
40.725007 126.079997 275.500000
42.868570 1.581429 269.602856
42.842499 3.051667 269.601666
42.924998 4.883333 269.610001
43.023999 6.945332 269.612001
43.119166 9.007500 269.622501
43.218000 11.058666 269.633998
42.975833 13.099167 269.746668
42.729999 14.924167 269.660835
42.827334 16.978667 269.669334
42.924998 19.025833 269.684166
43.020713 21.008571 269.695713
43.113845 23.038461 269.705383
43.205831 24.936667 269.719168
43.192308 26.864615 269.736154
42.715833 29.017500 269.741667
42.810665 31.029333 269.754000
42.904999 33.031667 269.778333
42.979332 34.958000 270.533334
42.994164 36.961667 271.350000
43.153333 39.008667 271.280666
43.245832 40.990000 271.305000
43.065880 42.990000 271.321765
42.770834 44.950833 271.470833
42.868665 46.959333 271.323334
42.963076 49.014615 271.316923
43.113850 50.916154 271.321538
43.099998 52.890714 271.319286
43.242307 54.864615 271.324616
42.985001 57.024000 271.328999
42.863999 59.107000 271.323001
42.804665 60.977333 271.405333
42.949998 62.985384 271.442308
42.993998 65.002667 271.371333
43.029999 67.008462 271.375384
43.227855 68.912857 271.398573
43.108750 71.008750 271.395626
42.847333 72.920667 271.387334
42.817334 75.058666 271.374667
42.898664 77.070667 272.116667
42.971332 79.020667 273.110000
43.061538 81.011538 273.033847
43.162665 82.962000 273.052667
43.070000 84.951666 273.062500
42.985999 87.121001 273.070999
42.955557 89.071111 273.071111
42.838122 90.960625 273.084374
42.896666 93.048000 273.100665
42.989999 95.056667 273.115334
43.083334 97.050667 273.146000
43.177999 99.042000 273.131333
42.962499 101.017500 273.134000
43.002630 102.948421 273.141580
42.836874 105.020625 273.153752
42.940001 107.040667 273.172667
43.033997 108.981332 273.187333
43.165623 110.918750 273.495000
43.146666 112.881112 274.277778
42.979996 114.899999 274.697498
43.017273 116.970909 274.934545
43.088328 119.025000 275.230002
42.856428 121.103571 275.324285
42.892272 122.980910 276.573637
42.950836 124.998333 277.019166
42.934998 126.084999 275.880001
44.781246 1.461250 269.605001
44.858462 3.051538 269.605385
44.949997 4.972500 269.610000
45.043571 6.960714 269.613571
45.140768 9.010769 269.623846
45.183845 10.996923 269.639230
45.092141 13.025714 269.660717
44.759228 15.033846 269.673077
44.797692 16.995384 269.676154
44.990767 18.970769 269.690000
44.991429 21.005000 269.697142
45.126666 22.970833 269.705833
45.270713 24.932143 269.724287
45.030712 27.003571 269.748572
44.800000 28.980769 269.751538
44.795001 31.002857 269.754999
44.986922 33.003077 269.966154
45.007998 34.986667 271.016666
45.096665 36.968333 271.261665
45.189333 38.964667 271.292000
45.137998 40.854000 271.308000
44.931818 42.993636 271.330908
44.776922 44.987692 271.333075
44.862856 46.959286 271.317143
44.914283 49.028571 271.317143
45.103074 50.990000 271.317693
45.148002 53.037333 271.320667
45.146921 55.063846 271.331539
44.906664 56.906111 271.332777
44.840716 59.061428 271.320714
44.838459 60.996923 271.345384
44.982666 63.006667 271.359333
45.127856 65.082857 271.360713
45.180712 67.067857 271.447858
45.154616 68.996154 271.384615
45.037778 71.016666 271.391112
44.797854 73.067857 271.372857
44.837333 75.062000 271.552666
44.935623 76.988125 272.906875
44.944284 78.997143 273.029286
45.079999 80.990000 273.052000
45.175999 83.034000 273.060000
45.062220 85.137778 273.063890
44.955624 86.911250 273.070000
44.823997 88.849333 273.079334
44.922665 90.884666 273.093333
45.013748 92.973750 273.111875
45.118667 95.051333 273.118667
45.158572 97.004287 273.130714
44.955556 99.014445 273.148888
45.015997 100.901000 273.151002
45.009089 102.950909 273.157274
44.863751 104.924375 273.166251
44.871874 106.986249 273.178126
45.045881 108.968235 273.737647
45.069412 110.952942 274.488824
45.164443 113.032777 274.998333
44.951499 115.061000 275.199000
45.060001 116.993182 275.310455
45.002630 119.022631 275.932632
44.805998 120.988000 276.908500
44.877776 122.935556 278.366111
45.137329 124.917999 278.483333
0.000000 0.000000 0.000000
46.824997 1.443334 269.606666
46.848572 2.972858 269.604285
47.043842 5.017692 269.611540
47.083331 6.926667 269.619167
47.124285 8.908571 269.632856
47.323076 10.954616 269.657694
46.862498 13.114167 269.664167
46.781667 15.059167 269.674167
46.926150 16.958462 269.679231
46.916428 18.990000 269.694285
47.117690 21.036154 269.700770
47.156152 22.994615 269.722308
47.196153 24.954615 269.736924
46.926999 27.085000 269.744000
46.698567 29.042143 269.742143
46.830831 30.978333 270.034999
46.917334 32.982000 270.336666
47.043075 34.989231 271.254616
47.039285 37.007143 271.274286
47.228460 39.021538 271.303847
47.070626 41.075000 271.391875
46.764282 42.963571 271.337856
46.859288 45.026429 271.327856
46.859227 47.008462 271.322306
47.046426 48.999286 271.314286
47.048462 50.965385 271.316154
47.194664 53.018000 271.326001
47.221821 54.927273 271.343636
46.869998 57.095000 271.341665
46.789230 59.039231 271.343846
46.867859 60.981428 271.360001
47.020713 63.007143 271.380000
47.018570 65.014286 271.384999
47.150713 67.023572 271.390000
47.162142 69.001428 271.457144
46.973685 70.932631 271.436842
46.855713 73.072857 271.372858
46.894664 75.036667 271.794669
46.922497 76.986876 273.029376
47.112305 79.014616 273.056924
47.149331 80.949334 273.048668
47.127690 82.892308 273.054616
46.975003 84.992999 273.061000
46.973633 87.096365 273.080908
46.797331 88.997333 273.086666
46.844999 90.954286 273.092141
46.979999 92.906001 273.101999
47.030001 94.976249 273.116251
47.099375 97.075625 273.133750
46.960997 98.982500 273.155501
47.005790 100.916316 273.155792
46.810000 102.986250 273.160002
46.985001 105.006249 273.398750
46.972940 106.951765 274.114118
47.137645 108.999999 274.593530
47.186001 110.924666 275.000666
46.988460 112.837693 275.210769
47.020000 115.010910 275.320910
47.070707 117.027857 276.556428
46.757224 118.942778 277.722222
46.800586 120.940000 278.481176
46.918820 122.963529 278.444706
47.067058 124.955294 278.431176
46.299988 126.009998 278.459999
48.834997 1.370000 269.605000
48.912665 2.968000 269.613334
49.010000 5.012500 269.616668
49.151426 6.992143 269.626430
49.147694 9.024615 269.642308
49.224543 10.862727 269.665454
48.754286 12.993571 269.669285
48.799164 14.969167 269.674167
48.890000 16.940714 269.686428
48.987690 18.983846 269.703845
49.079287 21.019286 269.708571
49.176922 23.056923 269.725386
49.318458 25.010769 269.734616
48.744666 26.912667 269.742667
48.851534 28.981538 269.749999
48.837272 31.109091 269.853636
48.968569 33.003571 270.870715
49.050002 34.984615 271.279230
49.148568 36.983571 271.296429
49.236922 38.998462 271.319230
49.145455 40.889091 271.330908
48.736667 43.041667 271.332499
48.875711 44.956429 271.325000
48.862310 46.962308 271.316152
49.063568 48.940000 271.313572
49.061428 51.005714 271.320714
49.251536 52.970769 271.329230
49.164665 54.991333 271.348000
48.821999 56.924000 271.343332
48.779999 59.010000 271.352142
48.974285 61.035000 271.360000
49.028571 63.049286 271.389285
49.065713 65.060000 271.388572
49.266921 66.986923 271.402309
48.935001 68.936000 271.396001
48.940907 71.140000 271.380909
48.711536 72.995385 271.454616
48.848122 74.888125 271.963750
48.922001 76.896667 272.638666
49.009998 78.926000 273.047334
49.155001 80.947857 273.061428
49.122500 83.008750 273.056874
48.989997 84.994500 273.070000
48.846251 86.953751 273.088124
48.867332 89.030666 273.095332
48.963330 91.063333 273.099331
49.061334 93.082000 273.108000
49.156000 95.087333 273.127333
49.195714 97.022858 273.135714
48.980002 99.026000 273.143002
48.978180 101.063637 273.150910
48.800623 102.942501 273.429377
48.833750 104.950000 273.781876
49.034736 107.030526 274.667369
48.925710 108.957143 275.357859
49.163533 110.907058 275.515294
48.996000 113.065600 276.192799
48.911248 115.001667 277.631667
49.004782 116.960870 278.358261
48.942776 118.995555 278.465000
48.906248 121.049375 278.420001
49.072941 123.031177 278.411177
49.144115 125.045294 278.438236
0.000000 0.000000 0.000000
50.916667 1.500000 269.623333
50.931535 2.940770 269.626153
51.127143 4.997143 269.638571
51.123073 7.049231 269.640769
51.268461 9.021539 269.653847
51.022000 10.965000 269.662002
50.719282 12.930000 269.672143
50.918462 14.959231 269.682307
50.903844 16.925385 269.696922
51.105000 18.948571 269.702142
51.096922 20.982308 269.716154
51.293573 23.004286 269.721429
50.956665 25.040000 269.727778
50.852499 27.091667 269.738333
50.774996 29.035714 269.759285
50.922667 31.040000 271.574666
50.939283 32.914286 272.897857
51.014611 35.036154 271.281538
51.161539 36.953077 271.304616
51.247858 38.935714 271.326428
50.782307 41.073077 271.325384
50.779999 43.084286 271.326428
50.865383 45.047692 271.326923
50.969284 47.025000 271.320715
51.051540 48.970769 271.323076
51.153331 51.005333 271.318000
51.246666 52.950833 271.339166
50.976999 54.911000 271.352001
50.775384 57.011538 271.347690
50.822001 59.029333 271.346665
50.923845 61.038462 271.364617
51.002856 62.970000 271.392144
51.149284 64.965000 271.406429
51.196668 67.026000 271.414667
50.906666 69.038333 271.397223
51.132003 71.096500 273.623000
51.000570 73.049428 277.667143
50.891559 74.994687 280.077813
50.909502 76.980500 279.555000
50.911333 78.925333 277.584000
51.287893 80.953685 275.638948
51.013001 82.928000 273.063001
51.028000 84.951000 273.082999
50.869998 87.057692 273.089999
50.849331 88.992667 273.093332
50.942666 91.031333 273.101999
51.036668 93.062667 273.118000
51.132001 95.081334 273.133332
51.148747 97.143125 273.145001
51.004998 99.094000 273.194001
51.008945 100.973684 273.642105
50.866667 102.998000 273.976667
50.935263 105.012632 274.857370
50.978745 107.045625 275.817500
51.215002 109.081250 276.013125
51.092499 111.033000 277.178499
51.044164 112.894999 278.469167
50.928179 114.996364 278.474547
51.041999 116.951000 278.443999
50.860623 119.026874 278.419375
50.811251 120.987500 278.419376
50.993527 122.971176 278.456471
50.948000 124.873333 278.524000
51.250000 126.009998 278.559998
52.972496 1.486250 269.620000
52.960831 3.021667 269.627499
53.053572 5.006428 269.635713
53.150766 7.053077 269.646923
53.240835 8.955000 269.668335
52.846666 10.900667 269.663335
52.820768 12.982307 269.673077
52.815713 15.032143 269.682857
52.954997 17.005000 269.702499
53.094287 18.976429 269.715000
53.091537 21.010000 269.720770
53.286924 22.986154 269.726924
52.879376 24.947500 269.735001
52.722307 27.015385 269.750769
52.898749 29.032500 271.954375
52.729998 31.034211 277.040000
52.832999 32.901000 279.151000
53.096152 35.004615 272.360770
53.162138 37.035714 271.553572
53.304166 38.974167 271.397500
52.774998 41.020000 271.333571
52.764613 42.996923 271.337691
52.965001 44.990000 271.337142
52.953074 46.963077 271.334615
53.101333 49.017333 271.320000
53.201536 51.062308 271.320769
53.282855 53.013571 271.355713
52.813334 54.903334 271.351332
52.771428 56.970000 271.347856
52.967139 58.979286 271.347856
53.015715 60.980000 271.370714
53.052855 62.980714 271.400001
53.247857 64.969286 271.409288
53.006000 66.839000 271.403002
53.024997 68.939000 271.386999
53.044287 71.250476 275.769999
52.863200 72.931600 277.957600
52.985716 75.070714 283.159999
52.775997 77.160000 282.868001
53.081331 79.062000 279.990667
53.047239 80.713103 278.153103
53.055496 82.930000 278.168000
52.901249 84.813750 273.736874
52.814002 86.867333 273.099998
52.906872 88.954375 273.103124
53.013330 91.022667 273.115333
53.103998 93.016000 273.131333
53.246250 95.044375 273.285000
53.014543 96.926363 273.258182
53.001663 99.029167 273.680833
52.901668 101.110000 274.419999
52.747641 102.920000 275.417647
52.831875 105.018750 275.571250
53.070555 107.000000 276.480000
52.923684 108.951053 277.892632
53.101872 111.032500 278.456249
52.985500 113.081001 278.441001
52.966662 114.997620 278.422858
53.101739 117.006086 278.416087
52.878746 119.025001 278.430001
52.991766 120.993530 278.494705
52.980835 122.949166 277.775000
53.224617 125.004614 275.498462
53.119995 126.149997 275.489998
54.844996 1.593334 269.738332
54.909999 2.981666 269.665001
54.999285 4.967858 269.859285
55.098462 7.046154 269.644616
55.146151 9.038462 269.666154
55.090002 11.096875 269.667501
54.829283 12.945000 269.683572
54.835715 15.037143 269.694999
54.935383 17.086154 269.713847
54.978462 19.059231 269.719232
55.119230 21.034616 269.723847
55.261536 23.000769 269.736924
55.093335 25.039333 269.746667
54.791535 26.888462 269.930768
54.788332 28.980556 273.816111
54.756665 30.820000 278.915999
54.858663 33.094000 277.372001
55.010004 35.269000 272.319000
55.223077 36.989231 271.615384
55.182497 39.078125 271.993750
55.008124 40.932500 272.676250
54.816428 42.961429 271.385000
54.906152 44.943846 271.332308
55.005711 46.926429 271.334998
55.147143 48.974286 271.332142
55.149281 51.014286 271.336429
55.177500 52.953333 271.344999
54.809998 55.080833 271.351665
54.745000 56.979286 271.344998
54.883574 59.007857 271.360000
55.028569 61.022857 271.375001
55.024998 63.034286 271.415000
55.211541 64.976923 271.409233
54.948332 66.977778 271.398890
55.037776 68.922222 271.383332
54.960967 71.073548 277.024839
54.913700 72.958519 282.718889
54.971873 74.961875 284.541250
54.851339 77.103333 284.450001
54.939562 79.215652 282.181304
54.949999 81.058182 283.193182
55.120001 82.942727 283.771818
54.919167 84.975000 276.194999
54.829285 86.965714 273.092856
54.930666 88.952000 273.111333
55.023999 90.974667 273.123333
55.113332 92.960666 273.264666
55.159373 94.993125 273.429376
55.047501 96.942500 274.612999
55.063600 98.954400 275.716800
54.878124 100.912500 276.048125
54.999411 103.043530 275.901765
54.887366 104.972631 277.342104
55.028124 106.955625 278.477501
55.179375 108.969999 278.461250
54.997688 110.866922 278.436153
54.961820 112.968182 278.417273
55.013636 115.000910 278.423637
55.148180 116.980909 278.483636
54.678572 118.895000 278.507143
55.129998 120.969999 276.167693
55.075883 123.021765 275.414707
55.056663 125.040556 275.415000
54.932503 126.109999 275.424999
57.023072 1.425385 272.121539
56.920002 2.899375 272.111874
56.884997 4.941666 272.611666
57.104735 6.937895 271.532105
57.216667 8.992667 270.229334
57.244998 11.056667 269.668334
57.029999 12.997333 269.679334
56.776922 14.998462 269.697692
56.818460 16.981539 269.714615
57.011538 18.953077 269.722308
57.055385 20.936154 269.736924
57.145000 22.967143 269.747143
57.242501 24.943333 269.758331
57.003123 26.851875 269.851874
56.716921 29.008462 270.388462
56.727995 30.963333 272.270000
57.005385 33.014615 270.599231
57.008461 34.984615 270.093847
57.184283 36.962143 270.640715
57.169998 39.101111 273.576667
57.209996 40.921538 277.746154
56.823331 43.006667 272.537500
56.740001 44.963333 271.609998
56.920716 47.060000 271.562858
57.017497 49.005833 271.410000
57.113334 51.012667 271.336666
57.037142 53.091429 271.342856
57.042628 54.977895 271.354736
56.895000 56.948125 271.359376
56.887140 59.042857 271.369286
56.970769 61.010769 271.377692
57.073574 62.963572 271.411431
57.118568 64.976428 271.411431
57.264002 67.070667 271.390667
57.156156 69.202308 273.370769
57.043234 70.993529 278.081176
57.169474 72.904211 282.497894
57.186874 74.868125 284.953125
56.839997 76.891111 282.624444
56.940797 79.020000 281.628800
57.091905 80.967143 280.193809
57.271307 82.995652 279.748695
57.029521 84.937619 278.506667
56.754615 86.995385 273.105385
57.006247 88.998750 273.180625
56.999287 90.999286 273.271429
57.247220 92.994445 274.200000
57.084999 94.937500 276.582000
57.269229 96.803846 278.250000
56.990909 99.149091 275.750001
56.864663 101.101333 277.032000
56.776470 102.968235 278.179411
56.868667 104.953333 278.474000
56.930000 106.995882 278.449999
57.060667 109.023333 278.428668
57.003686 111.041580 278.422106
56.975236 112.945714 278.450953
56.892000 114.879500 278.514000
56.843336 117.019168 277.504166
57.056000 119.147333 275.392667
57.118665 121.020001 275.320667
57.219998 122.957647 275.317059
57.049167 124.891667 275.324999
57.000000 126.130001 275.330002
59.139229 1.353077 273.636153
58.969468 3.098948 274.361052
58.999997 5.012353 275.035883
58.921818 6.967727 272.663182
58.895711 8.895714 272.417144
59.179284 11.042857 270.677857
59.099998 13.100000 270.281429
58.965293 14.974706 269.693529
58.849287 17.007143 269.718572
58.894997 18.961667 269.738333
58.989999 20.986667 269.755999
59.086668 23.010833 269.760833
59.227140 24.965000 269.771428
59.061332 27.039333 269.934667
58.754613 28.925385 269.850769
58.803333 31.002667 269.892000
58.896668 33.004167 269.920833
58.987999 34.997333 269.937333
59.033847 37.062308 269.967691
59.065001 39.181111 271.907223
59.091049 40.997368 278.657368
59.213749 43.386250 273.557500
58.850715 44.971429 271.343570
58.948570 47.010714 271.393570
58.955715 49.069286 271.352855
59.089167 50.959167 271.513334
59.187994 52.953333 271.364665
59.280771 55.008462 271.353076
58.835452 57.066363 271.377272
58.783570 58.942143 271.377857
58.884666 61.025333 271.392667
58.986152 63.036154 271.416925
59.063568 64.964286 271.398571
59.239999 67.026667 272.035333
59.057662 69.058667 275.452333
59.072283 70.888286 278.694286
59.296112 73.116111 283.378888
59.163329 75.120000 281.629523
59.072271 77.040454 282.128636
58.872222 78.800371 282.366296
58.874117 80.921764 284.799412
59.066431 83.275714 282.259284
59.120001 84.754000 282.200999
58.785833 87.080000 273.532500
58.824999 88.940714 273.544288
58.961498 90.984500 275.134500
58.844707 92.929412 277.540589
59.003329 94.979334 278.240000
59.090718 96.942857 278.072858
58.912350 98.865882 277.854706
59.008945 101.057895 277.996315
59.133336 103.066190 278.430953
58.900664 105.093334 278.436000
58.995331 107.033334 278.416668
59.053126 109.014376 278.427501
59.180664 110.977333 278.487333
58.894443 112.755556 278.537777
59.019998 115.249000 275.395000
58.825999 117.013333 275.319332
58.922777 119.058889 275.272777
59.016000 121.072000 275.273334
59.074115 123.011765 275.264117
58.951428 125.056667 275.250476
58.970002 126.070000 275.229999
61.076663 1.294166 274.312500
61.154377 3.054375 276.150001
61.248232 5.096471 274.612354
60.968498 6.958000 274.379000
60.822857 8.919286 274.064286
61.069226 10.987693 271.892307
60.997851 12.956429 272.868571
61.118572 14.997143 273.776429
60.921177 17.068824 270.634706
61.035626 18.870000 270.105626
60.871997 21.039333 269.748667
60.965833 23.021667 269.767499
61.050668 24.982667 270.102666
61.102309 27.060769 269.855384
60.964208 29.046842 269.868421
61.072220 31.083333 269.893334
60.835718 33.072143 269.923571
60.921537 35.052308 269.930769
61.023573 37.050714 269.940714
61.150714 39.064286 270.244286
61.130625 40.961875 272.921875
61.268334 43.146667 271.629166
60.942141 44.973571 271.326428
60.789998 46.935714 271.328571
60.893335 49.018667 271.341332
60.993840 51.030000 271.352307
61.069999 52.955714 271.380000
61.169999 55.024000 271.404666
60.902349 56.932353 271.381764
61.051000 58.926000 271.378500
60.894285 61.027143 271.394287
60.894281 63.036428 271.422857
61.090771 64.959231 271.413078
61.163748 67.002500 271.957499
61.052173 68.993913 275.623913
61.127223 71.027222 278.276666
61.084998 73.104231 279.783462
61.049999 74.806087 280.101740
60.920716 76.900000 281.381429
60.834347 78.999565 281.631304
60.811175 81.008824 283.288824
61.017273 83.044545 283.215909
60.852628 85.029474 281.446316
61.003891 87.127222 276.935000
60.945417 88.955000 276.855417
61.068420 90.943684 278.227369
60.867996 92.953333 278.224667
61.014667 94.935333 278.250667
61.152143 96.892142 278.115714
61.212665 98.951334 277.931334
61.129166 100.813333 277.884167
61.046664 102.952500 278.194168
60.770665 105.004000 278.414001
60.896872 106.956250 278.468125
60.812856 108.867143 278.495000
61.215002 110.977500 276.125832
61.053807 113.103809 275.382857
60.841819 114.838181 275.596363
60.430911 117.010000 275.236364
60.909374 119.053125 275.231251
61.059998 121.028126 275.213126
61.064706 123.045295 275.189412
61.248747 125.030626 275.238125
60.879990 126.110000 275.274998
62.910001 1.424545 271.617272
63.024997 2.977000 272.454500
63.175458 5.065000 272.630455
63.225003 7.056250 272.223125
62.907645 8.904118 274.108824
62.890666 10.916667 273.050001
62.807138 12.959286 275.297857
62.912312 14.977692 274.986923
63.108233 17.065882 272.351764
63.007504 19.032500 272.523124
63.008233 21.059412 271.157059
63.096874 22.980625 270.394375
62.998665 24.944667 271.021999
62.999166 27.107500 270.395000
63.097694 29.044615 269.894617
63.148459 31.000000 269.906924
63.045556 33.033333 269.923333
62.877997 34.926667 269.925334
62.894285 36.993571 269.930713
62.828822 39.039412 271.669413
62.922665 40.964667 274.582667
63.043842 42.937692 275.252306
63.017857 45.091429 271.584286
62.966839 46.975789 271.315790
63.025884 48.944118 271.322353
62.834283 51.007143 271.347142
62.977140 53.031429 271.362142
63.062307 54.975385 271.363076
63.160665 56.994667 271.369334
63.254613 59.011539 271.372309
62.907778 60.907778 271.537222
62.750713 63.042857 271.524286
62.893337 65.099333 271.391334
63.068821 67.222353 274.024706
62.866084 68.742174 277.553044
62.734193 70.926129 278.791935
63.078750 73.089584 280.453750
63.017997 75.089333 282.168001
62.917504 77.136666 277.710000
62.956331 78.976000 277.548334
63.081668 81.022667 280.327667
62.967038 83.046296 280.905185
63.196111 85.033333 281.511666
63.028748 87.022500 281.575000
63.205331 89.095334 277.424667
62.952728 91.100909 278.240000
62.781332 93.006667 278.262000
62.871334 94.948666 278.314000
63.003123 96.968750 278.258750
63.070667 99.028000 277.943333
62.993888 101.043889 278.067778
62.961997 102.943500 278.070001
62.845623 104.841875 277.751874
63.029229 107.123846 275.284616
63.032001 108.968667 275.242000
63.313999 110.632000 275.304001
62.690003 113.750003 275.150002
62.898747 115.043750 275.163751
63.073996 116.877001 275.168000
62.820622 119.055625 275.154377
62.833126 120.989999 275.161875
62.971665 123.037779 275.191110
63.117918 125.168334 276.907500
62.399994 126.020000 275.300003
65.248183 1.353637 271.890000
65.018824 2.967647 269.507059
64.981428 4.982857 270.864286
65.085553 7.032778 268.977778
65.302221 9.017222 270.873888
64.962775 11.017778 271.932778
64.976314 12.929474 274.482105
64.845712 14.892143 275.280000
64.914704 16.955882 274.430000
64.941331 18.964666 275.771334
65.114166 21.188334 272.965001
65.129228 23.115385 272.041537
65.049412 25.016471 272.190000
64.717692 26.975385 272.220000
64.870770 28.941538 271.918462
64.949996 31.000769 270.376154
65.150001 32.966154 269.932308
65.012499 35.026250 269.940000
65.043806 37.040952 271.069524
64.900475 38.905238 274.341906
65.023998 40.973000 275.280000
64.879332 42.988667 275.416667
65.159091 45.157273 271.647273
65.086428 47.019286 271.302858
65.184996 49.023571 271.317858
64.893889 50.913889 271.322223
64.772143 53.054286 271.342856
64.915000 55.065714 271.340713
64.910767 57.001538 271.343074
65.094997 58.940000 271.360714
65.014119 61.071765 271.374706
64.884997 63.009445 271.439446
65.088948 64.984210 271.435789
65.209373 67.157813 275.060312
64.914136 68.747586 280.884483
64.963041 70.869130 281.229567
65.285880 73.189412 280.606471
65.091721 74.937586 278.171034
65.072729 76.800455 277.931818
64.841331 79.089333 274.228667
65.083791 80.937931 277.228276
64.937331 82.924333 277.574667
64.883570 85.012143 277.437143
64.959527 86.935238 277.397619
64.847825 89.169130 274.180000
64.986956 90.948261 277.687392
64.979497 93.039500 278.310001
65.073502 95.018500 278.271500
65.017058 96.912942 278.243530
64.976665 98.911334 278.361334
65.067501 100.936875 278.283751
65.135383 102.900769 277.887691
64.909998 105.151819 275.470002
64.755331 106.960667 275.151332
64.884375 108.937499 275.084999
64.912354 110.993530 275.109999
65.084998 112.937858 275.111428
64.947502 115.049001 275.099500
64.940906 116.995000 275.098181
65.070001 119.002272 275.134091
65.124999 120.969091 275.263182
65.113916 122.928261 275.854782
64.970769 125.101923 278.259230
0.000000 0.000000 0.000000
67.134282 1.398571 273.162857
67.014214 3.048948 272.636842
66.875296 4.994117 271.649413
66.847222 7.039445 270.926111
67.077776 9.001111 269.614444
67.045714 11.140952 268.850000
67.225881 12.834118 270.988236
66.937057 14.990588 270.807059
67.014496 16.990000 275.066000
66.994446 18.911667 276.857222
66.936153 21.056154 274.010000
67.003332 22.973333 273.088333
67.089288 24.907143 273.314286
66.856362 26.941818 274.602727
66.875291 28.909412 275.508235
67.052352 30.900588 271.999411
66.958573 32.980000 269.949999
67.049998 34.924167 269.941667
67.149500 37.082000 271.230500
67.094668 38.951333 275.994667
67.187495 40.930833 275.987501
67.033333 42.786000 275.546000
66.870000 44.993333 271.296667
66.962665 46.981333 271.293334
67.067688 49.039231 271.285385
67.072668 51.037333 271.326667
66.923330 52.949444 271.315000
67.026843 54.965790 271.323158
66.964667 56.950000 271.327999
66.951425 59.015714 271.327143
66.995004 61.027857 271.346427
67.180768 62.953846 271.385385
67.223332 64.944000 271.429333
67.106154 67.203077 275.719231
67.131000 68.815000 280.897500
67.172302 70.814615 282.375384
67.032776 72.985555 276.706667
66.887496 75.025833 275.936667
